# 3D point list with one line of data per point:
#   POINT3D_ID, X, Y, Z, R, G, B, ERROR, TRACK[] as (IMAGE_ID, POINT2D_IDX)
# Number of points: 385, mean track length: 5.5084667487684733
4366 -0.48473443400419597 -5.3695746975245457 6.3819215000139771 135 136 132 0.073112908236036722 22 538 25 587
4362 3.8638117496728905 -1.2018477941712076 8.6491333728591897 22 24 30 0.51211221237482374 25 569 28 611 36 354 23 377 33 902 6 296 26 253 1 199 3 234 2 225 5 246 13 283 8 232 32 666 37 652 40 602 29 890 15 1476 31 1323 30 1135
4359 -0.3996359604444194 -5.0169296459167469 6.5283377295293894 155 155 149 0.3176667475402164 22 492 25 560 28 602
6714 4.2555333038115659 -0.0086565451732404618 9.3007617136359322 30 31 31 0.10548431913365588 2 1000 5 1131 13 1115 8 1149
1627 -2.6376925521620835 -4.706287308714896 6.7224837694154571 65 60 58 0.46120571810384436 43 1320 9 1100
4357 -2.6187191352040671 -5.062293020557898 6.4025687355523644 169 169 164 0.55822741815517718 22 598 25 557 4 502
6713 -2.2961118809469108 -3.1208097312199938 7.7456241444980174 164 155 150 0.0074557882168559981 3 1040 5 1130
1626 -2.2589042002822182 -3.4914797447470627 7.5308659836469634 231 227 220 0.3671535881494688 18 954 42 1059 9 1080 17 1158
4356 -3.6146574431333134 -5.1062427814766354 6.4738477401094965 181 177 169 0.1054455505553155 22 597 25 556 28 601
6712 2.0861044105523558 -0.93983358308460807 8.8467294005235644 147 139 133 0.5813073405555943 2 989 5 1125 13 726 8 1199 32 1178 40 1351 15 261 30 213
4355 5.9731875800546792 -5.4505587274845766 6.2879276094789178 29 35 46 0.40203857020371475 33 782 25 555 28 596
6711 -3.6470018458584232 -3.6203694569162082 7.4601706452213259 162 161 153 0.098067689061284644 2 1017 5 1123 13 1114
1624 -4.6504724228649081 -2.0777755075745703 8.3679241852898674 182 176 174 0.86032920406196822 42 1265 9 1060
4354 6.0093998216077935 -6.2220702326826043 5.8307283440615665 17 33 48 0.40433329359057063 33 832 25 543 28 585
6709 -2.2088280099855613 -5.4668376523067312 6.3207134811206034 81 75 69 0.0061460345237823177 26 1054 5 1111
1622 -3.5292705454995965 -3.9169787691430868 7.2350964316349344 147 137 135 0.75292511966689546 38 1202 9 1006 41 1115 20 969 21 1547
4352 5.4706347912179014 -6.4959744694938912 5.4351937618443493 23 33 47 0.4971426796245913 16 336 34 373 25 539
4351 -2.0800577234165969 -6.673587094366046 5.6420354915739921 125 125 121 0.85260602779417827 16 469 25 536 28 442
4350 -1.3304305591996766 -5.5840698376752416 6.493840848803516 136 136 132 0.44399371024038803 22 607 25 534
4349 0.4190550458131963 -3.2919565527274002 7.5831484828816293 124 128 130 0.50879699009211454 7 598 10 597 25 533 12 593
4347 -1.4152065293198428 -3.1129462293036343 7.6771140055005889 146 146 142 0.52669931073328702 19 888 22 550 25 521 28 788
6703 3.4647350686853566 -1.6340919962794063 8.3896473920171317 152 143 139 0.15214185084554599 2 913 5 1048 8 1297
4346 -1.0087263032115006 -4.3164889622850895 6.6359013860393619 227 219 215 0.7188954818029677 22 701 25 516 28 492
6702 -2.7319789050946226 -4.5954908145851823 6.7745778861815955 133 135 126 0.39669091022860026 26 634 5 1044
4345 -0.18356865303899317 -4.6893524031391687 6.6299836577859841 163 159 160 0.1595452212343248 22 567 25 513 28 688
4342 -0.059429621122822796 -4.9206246117499219 6.6021232653347592 173 173 171 0.48099076171008814 22 406 25 504 4 358
6696 -2.1602747599958541 -4.4562757503969044 6.6116249686323707 146 144 135 0.50662450287588712 2 900 5 1007 13 440
4339 5.4141397948415744 -5.3616358409275282 6.1237359269504807 25 34 44 0.52393108333117899 34 359 25 498 16 330
4338 5.8021707412015209 -4.1876980015154661 6.809686203971216 33 38 45 0.76314224985379731 33 776 34 484 25 489 28 558
4337 -2.77109793115855 -4.6551084027568814 6.7770582532057269 208 201 195 0.26191569340875814 22 549 25 477 4 531
4336 5.8487224664098889 -4.5816153279892697 6.6108181671659105 26 32 40 1.0092175675597819 16 416 25 476 34 420 28 451 33 770 23 506 36 542 6 487 26 562 1 585 2 859 8 812 37 945 40 663
4335 5.4324022202987718 -4.6377813453289392 6.6560261725924477 31 33 40 0.18076532402491904 33 603 25 474 28 485
4334 4.4529365817247726 -4.2501241740744264 6.7790474241357099 30 32 38 0.16607529315587113 33 611 25 473 28 489
4333 3.7332602325672424 -6.666308634520159 5.4953755119843146 16 26 31 0.4780588336253131 33 648 34 381 25 469 16 345
4331 3.2892605036426827 -6.6988642797275739 5.4963953559714955 18 25 28 0.43678436464834175 16 348 33 651 34 380 25 467
6687 3.8048901046585297 -2.2455921868112187 6.3542490965256455 83 73 79 0.28003393266441035 26 1032 5 925 13 909 8 947
1600 -4.5734857996337608 -3.1276274694814266 7.6413293267118476 240 228 225 1.8070076919299503 18 499 43 1430 9 512 20 363
4330 -2.5788843656183129 -6.6114276351267929 5.5297715900614683 131 132 128 0.072108051456223787 34 567 25 465
4328 6.5612890239865749 -5.9938923532892154 5.7602204341570866 66 90 102 0.20080384083881656 33 471 25 459
1969 -12.75114044332688 18.968869731406258 30.336487555249445 68 69 69 1.3088394309798734 41 2 24 3
6683 5.5654883614451238 -6.1585667347826769 5.6705488434115754 141 144 142 0.14151222594595325 2 748 5 896 8 902
1596 4.0948296490624596 -5.4648081191146956 6.1506512928612178 36 34 41 0.41988319262291651 18 319 43 609 9 349 20 667 41 573 24 309
4326 -1.737144557831966 -6.5469767168950463 5.6076925379584681 117 118 114 0.5543112539656968 33 1041 25 451 28 454
1968 0.33136632932161536 0.61248823243766271 14.088424734988335 106 114 115 0.47463446055672676 41 0 24 1
4325 -3.0214158695920381 -5.924752864226587 6.0507802719643182 138 137 133 0.098886636509570858 22 526 25 444
6681 4.4436423426980758 -2.7348802455585264 7.6875146806812271 137 132 132 0.63871976724237089 2 935 5 843 13 895 8 1082 32 1069 37 666 40 1088 29 1225 15 1036 31 1032 30 1013
4324 5.0625248761910164 -6.5667519310325817 5.4866864881856321 19 32 44 0.28647162212809357 16 338 34 334 25 442
4323 4.5997298467865493 -6.220139348815934 5.7176266520098453 19 31 36 0.42840494456196154 33 635 34 343 25 437 16 364 28 471
1965 2.1786419841326086 9.5847015290036133 19.206480112259811 79 87 86 0.42214014431908159 18 661 41 598 24 690 17 606
6679 2.905456259584136 -0.044791847001625779 9.1849260081160224 158 159 151 0.15913880367782146 2 1032 5 830 13 769 8 1188
4322 -3.3949967634936469 -6.2490397977887175 5.8339343159162764 143 141 133 1.27655766860084 10 1062 25 435 7 1148 11 784 28 732
1964 2.3251795106763899 -1.2745449361851156 8.7086345971824013 89 122 127 0.71556375108936565 20 1553 41 180
4321 -2.0400464704792562 -1.8811857978431232 8.3596433045387322 129 130 126 0.46472243211991859 16 579 25 430 28 422 36 413 23 594
6676 -1.6820538110164616 -6.9101658606300784 5.3792589049414934 111 114 108 0.19359500859150428 2 875 5 792 8 922
1589 -6.4974359495460616 -2.2959050817406723 8.2219092959009057 192 184 181 1.7058569114857982 18 88 42 67 9 109 41 112
4319 -4.3971806921654766 -2.442035567838158 28.071961004167576 142 142 138 1.0241341985576036 33 672 25 407
4317 5.3464648738120202 -3.4530179445686922 7.2940708516715347 30 29 36 0.32077429429910648 33 698 25 397 28 545
4316 -1.9656123312215574 -1.9189898713272315 8.1848122088942716 123 124 120 0.62822908425482538 34 471 25 386 12 817 19 905
1958 -5.1070424712092199 -1.9747634609684201 8.4089626916471776 184 180 176 1.6732788461974926 9 1065 17 1132 41 1086 42 1105 12 931 38 1361
4315 1.3452437013665284 -1.8050292627508016 4.4652511961302661 51 61 66 0.3498369035453609 33 955 25 384
1957 -0.8216522315416902 -6.1735398270834567 5.7645258039085698 27 34 40 0.1193000284282007 38 947 41 1537
4314 1.5812084465859069 -2.5946127201376012 5.7450156965105306 0 0 0 1.1966338464228006 10 713 39 770 12 729 19 872
4313 1.1914794739670764 -1.7231676680708743 8.2950023204372965 40 40 42 0.25350202343338385 22 436 25 375 28 418
4311 0.38943708626394602 -3.3368302781132644 7.4638197705969782 49 51 57 0.31648273439783187 22 132 25 371 28 365
6666 -0.81264119402010326 -5.7934650145259941 6.0734249632179633 147 138 130 0.10438636665059448 2 842 5 716 13 662 8 751
1579 0.32905173856407693 -2.1663287150720034 8.1153819323236327 83 85 89 1.7125811228718362 35 1578 42 1478 43 1247 39 1442 18 684 18 1296 35 815 42 670 43 801 38 1052 39 720 9 711 9 1326 20 901 20 909 41 884 41 886 24 725 24 1007 17 655 17 911 12 528 10 520 11 497 7 501 19 539 33 507 14 230 16 403 22 465 34 408 25 317 28 382 21 1332
4309 0.36731515007528021 -2.9514433587700815 7.6994525681724877 44 48 53 0.31529210294396681 22 213 25 364 28 392
4308 -1.4375853095521549 -4.1382108319711337 7.0263699431752356 228 216 209 0.72680992996570348 22 417 25 350 28 246 4 288
4307 1.3295917257143623 -2.7327607897378141 7.1583312888189488 101 154 158 0.65921707810577213 22 119 25 345 28 128
4305 -1.80937802175191 -2.8977866962263326 7.4994550039459638 143 140 137 0.037926499602644506 33 734 25 327
4304 -0.56446047426282941 -2.9049802213164031 7.6965710927910953 136 136 137 0.64469230078593265 22 450 25 326 28 524 4 477
4303 0.99732633832886175 -6.0139376261374133 5.8923378661717889 20 26 28 0.29298781494100257 22 278 25 307 28 321
1945 1.6169003152887764 -2.4008725818583856 4.8686884446407186 74 126 130 0.80535131715506036 18 1128 41 1466 17 1111
6659 -0.1205633738898946 -1.863307069750318 8.535962721808561 130 122 119 0.81160562317655338 2 1123 5 688
1572 0.0088954646699892816 -4.5280133398602436 6.7984148162437688 28 33 38 0.65966151558329067 35 298 42 207 43 481 38 299 39 236 18 218 35 1439 43 1385 20 434 41 569 24 251 17 188 12 311 10 317 11 315 7 316 19 322 33 574 14 185 16 255 22 110 34 271 25 182 28 234
4302 0.54900816672019737 -6.059681180655601 5.9075728537004073 20 26 28 0.18094198654651314 22 279 25 306 28 322
1944 3.4721352291892207 -1.6067246980165468 8.3332509954324152 127 137 141 0.96119695651357229 9 1346 41 1459 18 919 24 1315 17 1376
4301 -1.9441970560968513 -2.2932170719127525 8.2024692748566252 60 60 62 0.16278474885827132 22 230 25 304 28 350
6657 2.3006652504391001 0.55186967943009102 7.3396823256618351 106 103 100 2.2549575553761159 3 1170 5 684
4300 0.09653646924733493 -6.1190724871002145 5.9437735815796708 26 30 31 0.21480435979214496 22 280 25 303 28 296
4299 -0.35701342435683114 -6.158786155651419 5.9573694045230772 30 33 34 0.23186508796248842 22 281 25 302 28 288
6655 -1.4522861351171028 -2.7197766802191827 7.9241929109965508 160 151 143 0.13138537448482254 2 791 5 667 13 731 8 681
4298 -0.81067054312652809 -6.1910082874992236 5.9611856560874426 28 33 31 0.21582750062819592 22 282 25 301 28 289
4297 -1.2566918186902281 -6.1953862264726443 5.9353314724648945 39 39 39 0.15031500755567434 22 283 25 300 28 290
6653 -0.40998372756465618 -4.5856816332350938 6.7652470436571734 152 138 134 0.064625579807730274 2 596 5 606 13 553 8 599
4296 2.3227996570759921 -5.8958853341510871 5.8524433926308319 13 20 24 0.22252365370214464 22 285 25 295 28 397
6652 1.884454620376024 -3.7039334621150699 7.5781010784697713 118 119 117 1.1386471268507496 2 605 5 605 13 443 8 406
1565 -4.1527271570229729 -3.5321738021244293 7.4421509052232526 190 183 177 1.1866403556398786 42 766 18 1457 9 1127
4295 5.7259970950776307 -4.9419011400014288 6.3386881059890303 95 103 104 0.83204414446458896 16 249 25 273 34 101 28 261
6651 -2.224380416828442 -5.3238070951274423 6.3306260665546406 122 122 116 0.58281321138118825 3 532 5 602
4294 -0.95942065725379988 -4.9467723958721015 6.6564472613823291 202 199 194 0.24891720843678541 22 418 25 271
1936 4.4224940695040873 -1.5061507948412609 8.449870675730395 144 147 150 0.16473749661910747 9 1369 41 1411 18 1386 24 1483 17 1608
6650 -1.7341250768798244 -4.9625392726034132 6.4785377086498874 142 140 132 0.54347683190908369 2 600 5 599 13 941 8 988
1563 4.0705854800678685 -3.9228569468344539 7.0981411318166314 127 133 137 0.25102143364731772 38 1570 18 1431 9 1441 17 1509
4293 -2.7745925833087126 -4.6952297799410934 6.7419153698189129 209 204 195 0.051032122745750266 22 420 25 264
4292 0.52608727742731121 -5.6805153158594006 6.1525536620058174 27 32 37 0.12643714393502073 22 256 25 247 28 305
1934 4.4054776929016581 -1.1060600945837895 8.6882471485476298 146 146 150 0.19970820349561941 9 1394 41 1407 18 1395 24 1501 17 1449
4291 -1.4966253158845857 -2.2762148498192429 8.228278567591115 56 57 59 0.30993709256633922 22 231 25 245 28 378
6647 -0.10876083872270927 -2.5562648298486419 7.979361633323089 150 134 130 1.2150541789410736 2 1097 5 570 37 997
4290 -0.14203263049846487 -3.7357642666264548 7.1107939362235388 158 157 159 0.35558699352375828 22 121 25 229 28 93
4288 -1.449772331683312 -3.067279129895391 7.7667254076711876 65 64 64 0.30917134724520362 22 151 25 222 28 127
1930 0.20871008114854717 0.60589765817026531 9.7274665723383062 135 135 137 0.35794893722803839 20 1595 38 1511 41 1385
6644 0.81688025122959251 -1.7700450189993371 8.4077666005688041 140 125 122 0.7530572419813053 26 1130 5 563 13 563 8 566
1557 5.284160434911561 -3.0901467215048251 7.4515575736955864 44 45 53 0.6171181052100625 43 1676 18 1343 24 1443 17 1425
4287 -1.9113233459444134 -3.0978117406670767 7.7944606367906282 67 66 66 0.31153382900268695 22 149 25 221 28 117
6642 -3.2956915637260935 -3.2016452223336014 7.6657702065014144 158 168 156 1.0422420739039107 2 500 5 557 13 405 32 1123
4285 -3.2106665671562524 -3.1257693072518973 7.6531605063908437 61 61 57 0.30246939904165826 22 144 25 218 28 114
4284 -0.90864538708012454 -4.1847830396201271 7.0107790124094933 90 86 89 0.15762588641675748 22 335 25 217 28 229
4282 -3.202202154900827 -3.5254366365029091 7.4496545446381557 75 71 72 0.27698371827313256 22 180 25 209 28 130
6638 -1.7833006058581427 -4.2466851807822428 6.9721933897432482 175 167 160 0.10378730721013187 2 546 5 534 13 573 8 459
4281 -3.6418675387544228 -3.1369126360430859 7.6178170997237933 59 58 58 0.14570722989596149 22 400 25 208 28 112
1923 3.6528450920368978 -5.1394920874491188 6.3936104586532103 39 38 46 1.0419015030731453 9 757 41 1326 18 743 24 1552 17 861
4280 -3.5621044579294416 -5.1100885029285372 6.5454721596822152 87 87 81 0.43574567443553719 22 361 25 207 28 173 4 320
4279 -3.1051866487287221 -5.0785247378272667 6.5326408625899113 89 84 82 0.34745796368138415 22 359 25 206 28 174 4 319
4278 -0.87623417396310521 -5.175873003760243 6.694386895228142 169 167 159 0.89092463723534721 22 360 25 205 28 479
6634 6.7297098574563838 -5.5120485784246078 6.0448751130804004 96 113 118 0.56843548781378928 2 719 5 520 8 520
1547 3.6114721711057682 -4.3629025912750361 6.8378342143563788 17 18 23 0.52834011923026136 38 1066 18 1204 9 1213 17 1489
4277 -2.6538469731290921 -5.0479069376936154 6.5300765066140753 90 85 83 0.16322386463447808 22 358 25 204 28 164 4 318
4276 -2.2405081178385275 -5.0765811185669039 6.6142682698140574 81 78 75 0.31756227866559289 22 347 25 203 28 176
6632 5.0582258445117816 -6.1994629843498501 5.6986044413391852 46 44 52 0.10175557903988522 2 507 5 512 13 527 8 512
4275 -1.7974547301805315 -5.0727200324610475 6.6501646685742495 85 82 77 0.48728388510158743 22 355 25 201 28 177
4271 0.038845683045138489 -4.8767658126628737 6.5180256159311103 60 61 63 0.22579687356057765 22 352 25 196 28 247
4270 -3.5538980886141078 -4.68666530744974 6.711556378322352 98 92 86 0.31021353641126831 22 329 25 193 28 184
4269 -1.4457583830035463 -4.2853378243561844 6.9818308577582142 234 220 212 0.51541254041870543 22 338 25 187 28 244
4268 -3.1184638316595987 -4.6767635352250085 6.7398138626832838 96 94 86 0.31336628702360181 22 328 25 184 28 185
6623 4.0049271438552623 -4.8863627733770585 6.2794613278452234 41 31 39 0.70736749782466946 2 863 5 438 13 454 8 470
1536 -1.5634531258218956 -3.1632975154436647 7.6073775948776898 146 141 139 0.32918761249714407 42 1107 18 1119 9 1192 17 1366
4266 -0.89107542035947185 -4.585314458222002 6.8078937544598057 91 85 86 0.1955062701235675 22 324 25 180 28 232
4265 -1.3523485349989826 -4.6305353027911629 6.8378164437455338 99 94 92 0.35521350030919585 22 325 25 179 28 231
6618 0.30216472594708299 -1.6952000681013746 8.376575170806694 135 125 120 0.76807745057634325 2 531 5 420 8 685 32 1166 40 1369
4261 -0.85229296574047597 -5.3785644752964297 6.3767099272103147 59 60 55 0.41240352303340105 22 273 25 170 28 308
4260 -1.3162902405506594 -5.4393760514079128 6.4215844951495304 60 61 57 0.48740678656582759 22 274 25 169 28 309
4259 -1.7654813434478009 -5.4539385013163724 6.4046238647311249 67 64 61 0.36393829066347977 22 275 25 168 28 171
4257 -1.7331830997051152 -5.8275957533161726 6.152817193809323 52 49 46 0.16514147670893264 22 298 25 160 28 319
4255 -3.0196396740788836 -6.6482425528732216 5.6518374906441071 67 67 63 0.27008615020727478 34 250 25 156
4252 -1.9323493016901285 -2.7020243833061257 8.0180927895087777 61 60 60 0.27021751012742268 22 219 25 129 28 118
4251 -2.8102557769135195 -2.7264077238795128 7.9347026507300846 55 54 54 0.29030154645637762 22 217 25 127 28 122 4 198
1893 3.8781139281036521 -1.1661363080124751 8.6515230832085592 44 51 57 0.19403168898238071 9 869 41 1032 18 813 24 824 17 893
4250 -3.2280035539895033 -2.7308791120149394 7.8655152240746347 59 59 56 0.30901426046111014 22 216 25 126 28 121
1891 3.8614819028549667 -0.77003669373735206 8.8852790069665382 49 59 66 0.22222711476575568 9 865 41 1026 18 841 24 771 17 890
4248 -1.9697833167845396 -1.492230058645736 8.5883095612741194 68 65 62 0.20011165001308509 22 201 25 116 28 326
4247 2.3744974795155991 -1.0173812709148307 4.0854698855791955 82 94 98 0.041944631520269345 39 121 25 104
4245 -1.0418649216246842 -4.2931314377455703 7.0598097775980175 221 212 205 0.24074913366157932 22 123 25 100 28 100
4243 -0.52226281932555974 -4.1901130871998804 6.8258127743775647 198 195 191 0.91649304889153027 22 93 25 98 28 99
4241 1.6595537599854979 -3.4714034301191616 6.9212604189911051 76 130 137 0.40754423711519899 22 88 25 89 28 103
4240 1.4517345148962515 -0.88881356338814776 4.3333174997862294 24 34 37 1.6031109436948174 33 399 25 86 28 162
4239 -1.2883493004914892 -4.6437622244829182 7.0673418152243448 249 230 223 0.66215913987501651 22 91 25 83
4237 -1.3345183238901492 -5.2913464310897531 6.5929679931980356 163 160 155 0.45465549994602728 22 60 25 70
4235 -3.3377871683596236 -4.260355662539169 6.9396415459167589 198 194 187 0.55904886106189189 22 87 25 67 28 58
4234 -0.42575169527064144 -3.9436875534629316 7.0526382074422012 184 181 178 0.5845581790045653 22 52 25 65 28 45
4233 0.43658729202915103 -3.9098208200385343 7.1003467603248209 147 147 147 0.36257830950591491 22 50 25 63 28 63
6583 1.6393619565108932 -1.7156375358483962 6.0297449445977245 149 168 168 0.57259817421379455 3 173 5 81 13 77 8 82 32 64 2 143
4226 -2.5670348734280184 -4.7955425608740541 6.5631163470745832 205 201 194 0.006171442811433071 22 65 25 46
6581 2.0189980704428883 -7.2326368940819776 5.0281286244660253 128 124 125 1.562562459928226 2 306 26 198 5 74 8 134
4224 -2.433619497764727 -5.0001035434940029 6.549541932079225 189 187 182 1.5203160271724681 22 64 25 44
1860 2.4216794528743391 -6.7481501667660151 5.4240977776049837 93 99 98 0.63306175597405412 9 1062 41 618 18 1063
4217 -3.5973138071366573 -12.092795655616161 25.066334876676148 191 188 183 0.56785663599709701 39 97 25 30
4215 -1.7031536266627283 -4.182580076643168 7.3642605248243012 228 214 206 0.98667209790702015 22 43 25 28 28 24
4214 -1.9682554119230065 -3.9792385244200452 6.8825940275640178 214 205 198 1.4160017004347758 22 44 25 27 28 918
1830 -4.0627704771920241 -3.7778680977864347 7.3111789364165887 201 198 191 0.1560785443451923 9 55 41 72 18 61
4187 -9.1283965835805567 -8.9406683204561634 12.068789683518041 229 229 223 1.2922740740584695 22 1235 34 931
1828 -6.6370467242621265 1.4691735381004276 10.542282516560693 182 179 174 1.6539004325622129 18 69 41 53
4185 -18.97128726445737 -21.6887049785452 30.32932495468366 0 0 0 2.1488324880382885 12 1101 39 1664
4179 1.3485208583272701 -2.5938221654777238 7.8005624636226134 129 176 181 1.5008432847056481 10 1180 14 1158 34 813
4174 1.6190270457144071 -2.7318770281042672 7.1284254650077887 91 140 145 1.1008008909727942 7 1005 12 883 34 714 10 873 11 883 19 1031
1803 -3.6741489337059861 -3.1574742205052302 7.6744337199450401 46 51 56 0.55503535490746558 35 509 42 231 43 469 38 306 39 503 18 269 9 277 20 220 41 359 24 276 12 359 10 381 11 371 7 371 19 388 33 344 34 113 23 134 36 201 6 101 26 97
4160 -2.04465130192456 -4.6658059031134469 6.8778903649182803 179 174 172 0.55195102406003527 16 37 34 37
4159 0.72417730420007786 -5.3205188872738516 6.0129118007500688 138 141 144 0.87073502265293834 7 6 10 6 11 12 12 5 19 11 34 10
4158 0.28296526437611952 -5.4185881922060952 6.1682853937249638 159 158 160 0.24176614393447937 7 5 10 7 11 7 12 7 19 4 34 9
4157 2.2749674265950941 -5.2616776419575055 6.3657020105900504 79 91 92 1.4468091620968198 19 629 14 562 11 629 34 536 16 542 22 605 25 687
4156 -3.5185346084926019 -4.7346454192420842 6.7571834861171212 139 139 141 1.4464947965557997 12 1131 14 1261 19 1111 16 904 22 996 34 937 35 1327 42 1184 43 1317 25 508
4155 -3.5571797513464412 -5.6996758545447905 6.2284017886190606 59 58 55 0.32009262840482655 35 1013 43 1029 34 556 7 798 11 778 12 775 14 588 19 666
4154 0.096686658666269951 -4.9269880868155767 6.5719913430532451 134 143 145 2.0111188429979885 7 1080 14 1096 16 975 34 875 39 933 10 1104 16 892
4153 -1.1799224761384097 -4.9374839790125939 6.5789128540044874 195 193 196 1.3645857079923351 35 188 39 141 10 144 12 143 11 147 7 133 19 153 14 559 16 91 34 106 34 513 39 800 16 464
4152 -4.0356775086161454 -6.4789609752453483 5.7864118056485667 106 98 85 1.0412482099523286 16 66 22 106 34 71 39 166 33 134 4 132 36 140 23 139 1 270
1788 1.621235342585974 -0.52489419015806726 9.0276256501156684 131 134 137 0.9388857797201301 18 1405 20 1552 24 1306 9 116 18 63 17 1547
4145 2.4252482862209463 -6.766452804579024 5.4843198478102098 14 20 22 0.46426574700976353 16 1210 34 1231 25 933
4144 -1.8215168038668688 -4.6060966941519377 6.716496990481418 102 99 99 0.051518481733510951 16 1074 34 1230
4142 -1.8132349118565882 -4.5600073899004467 6.6934017598449325 182 181 180 1.4006905279512136 14 554 16 1073 34 1224
4140 -2.9541945079398739 -3.0285423849269972 9.5640802955687008 113 112 115 3.2604888057849681 16 1240 36 775
4139 -1.8051814954362608 -3.450036917916135 7.4810979314163619 119 119 119 1.1847647877071446 19 1217 34 1206 25 1102
4138 -1.0433487451544818 -2.6747400307680689 7.9024270143285351 0 0 0 1.0562201245400229 14 1230 16 814 14 813 22 1231 11 1207
4137 4.5691291943294354 -3.5239189465235405 7.4090519474323733 76 76 76 0.25145845637152375 12 1229 14 1260 19 898 34 1201
4136 -0.50057398925294661 -3.0388104478420761 7.5951114089393732 116 117 119 1.0605404333149502 16 782 34 1188 25 891 22 801 28 769
4135 1.8223104556034906 -3.2358738943612 6.3069966165347378 85 136 144 0.81970136002658156 11 1165 12 1179 34 1187 14 1204
1776 8.7559597904421675 29.869601763615389 61.155013937430752 56 67 73 1.3075579156684065 9 687 20 1437
6490 1.8066889839984752 -5.1857871109899385 6.2855817657942694 82 96 94 0.24267689182311947 3 634 2 705
4133 -0.46889266688930892 -3.020028668767532 7.6912185962105699 120 120 122 0.1536155670204154 22 1203 34 1184 4 798
4132 0.3588812428875926 -3.378511018047456 7.3971251213712383 105 108 111 0.5313042107093674 14 810 34 1183
6485 0.33361797089786732 -2.8826674607391487 7.7105848824557146 117 124 118 0.80680793604645351 3 1013 2 637 5 699 13 752 8 705 32 1100 40 655 31 1541
4128 -2.250078721704007 -2.2985918217121228 7.90101065226757 62 56 62 1.1056010469381352 16 1136 34 1146
6482 0.064917687126250387 -4.988286919739843 6.5896600053920862 132 134 125 0.34114839561804933 3 809 2 622 5 754 13 650 8 649
4125 -2.6686406568559096 -4.3092286368246606 7.0288604767742671 150 145 147 0.30743379370928248 14 882 34 1124
4122 -2.3442740133860447 -4.3078978493610425 7.3326398278975518 141 140 142 0.00083585760436611593 16 1100 34 1116
1764 -10.226692916290824 8.5245371261966589 21.333358505328064 155 152 154 0.59566118614271335 9 585 20 1356 18 388
4121 -1.297417322968111 -4.2238379868071876 7.0423472307772004 162 158 161 0.270944497991153 10 1379 11 1217 12 1295 19 1242 34 1112
6476 -0.68214180209585118 -1.8162050025349381 8.4176973358827709 130 128 120 0.42736297758181074 3 788 2 561 5 552 8 427
4119 -0.47117539623099108 -4.927829387712702 6.6985837756117617 187 186 189 0.2394254047059757 10 1103 11 1098 12 1151 19 1140 34 1106
4117 -1.8338786624626624 -4.6134002437826247 6.7094010112192377 186 185 185 0.26030283753423583 14 1097 34 1093
6472 0.34728534494091046 -3.2985523153823322 7.3765702425141839 111 118 113 0.7613715593795759 3 1061 2 545 5 536 13 574
4115 6.0137187486753403 -4.3087611537606545 7.0166484789119652 73 73 78 0.93722106791775983 16 1012 34 1079 25 654
4112 0.027532931016256878 -4.1806785085412805 6.9630183230923652 141 141 145 0.2094356445015601 16 766 34 1055
1754 1.9136661816900549 -3.519372170584611 7.1848602327220217 58 111 116 1.944321155626517 38 814 20 1278
4111 0.88415416668971258 -3.8840462162641143 6.2067819502760146 118 124 126 1.1995736253684308 12 991 34 1047
4109 0.84068365625212593 -4.09417921143298 6.8979505393081793 119 126 130 1.1567041161654394 34 1033 25 1096 22 787 4 861
6464 5.1251340875349864 0.80951853456440381 9.8224525093617014 49 39 45 0.86759889875467966 3 538 2 423 5 385 13 375 8 393 32 565
4107 -0.37048635645994377 -8.8223847309135977 12.448277410946458 177 176 178 2.5366766378474326 22 877 34 1027
1749 -1.9515823043962128 -0.033264301842433494 5.8546603100124557 140 141 144 0.73015105385190937 9 1425 20 1252
4106 0.11630703958259433 -4.9869803569579689 6.4637578146202079 179 179 181 0.08981555199719278 7 1076 11 978 34 996
4105 -1.2407320105967672 -4.9826641592790155 6.5437230861288773 201 195 193 0.043316473362639746 16 962 34 990
4104 2.346034312656283 -5.2322998991855174 6.4300042565501192 22 27 32 0.45201124061112458 7 1071 12 1109 19 1124 34 989
6460 5.5986503667774938 0.053509318412402522 9.3479590842839109 53 37 44 0.31025573218130681 3 564 2 410 5 373 13 394 8 383 32 844 29 1146 15 1107
4103 -3.6306070366623433 -5.0821401884120929 6.6055312537242896 197 194 191 0.035153442269121628 16 1241 34 981
4102 1.6509518534254579 -2.9311165916456443 5.8804689490532152 65 112 118 0.74715751790005447 22 1089 34 978
1744 3.2139094603381921 -5.1693624831416676 6.391867451424222 30 32 38 0.78092415044747687 9 760 18 753 20 1211 24 1361
4101 -1.3479879579465592 -5.0868455239564776 6.5389937144413475 181 178 175 0.14979712690760938 10 955 19 1174 34 977
1742 -0.99424025921709303 -6.4203021321879508 12.44244227634449 114 118 112 1.5820554090183647 9 1090 20 1178 18 1073
4099 -4.498075558958055 -6.0015906453114969 6.1104674276528002 183 182 174 1.697997903946592 10 1070 22 968 34 967
4097 0.98030318165511765 -5.164136426953605 6.3245534442491564 135 138 141 0.095370459800178303 7 1060 34 957
1739 1.4732951183040355 1.4409630020171302 10.19324095973726 67 66 75 0.32282970435315339 18 933 20 1136 9 871 41 1005 24 924 17 1119
4096 -3.2923809274459432 -6.593823446491081 5.76996997120491 128 125 122 2.3425262517790149 16 1140 34 950 4 965 22 894
4095 1.9737562241300861 -6.7928029792124507 5.4351039455182253 91 102 101 0.17706819356291503 16 938 34 949 25 931
4094 2.4201865279813077 -6.7615347341476442 5.4341927420562204 100 110 110 0.28845247795424173 16 939 34 936 25 932
4093 2.820725698922578 -5.9362318843059452 5.8704373616532957 78 84 86 0.099744584408192866 19 1099 34 932
4085 0.91154007191425657 -5.2646705058260803 6.2329479338040201 129 136 140 0.20584273932359812 7 1176 12 959 34 904
1725 1.9030078063652172 -2.8016501860063734 7.6942374245975111 56 90 96 1.2123924321600295 18 1197 20 856 9 1207 17 937
4082 -1.0577807007991069 -4.9690104309985497 6.5222559493008276 210 206 204 0.25018319638982728 7 783 10 946 11 789 12 975 19 738 34 894
4080 1.5212224216883421 -6.8136409254146129 5.4305731714629708 94 105 105 0.21626217261512762 16 862 34 886 25 929
4076 -4.9205789460146425 -6.9765993006494016 12.699726314255702 162 161 160 1.6534575616035077 22 1268 34 868
4072 -3.3016223191315293 -5.2697646490104004 6.2651954971323098 228 216 214 0.36340444204637251 7 944 10 989 11 1053 12 979 16 569 34 852
4071 -1.4135384244955196 -2.5536238402480365 7.7808329215138885 121 121 121 0.046689271098830941 16 1224 34 818
6426 2.5085210482979359 -1.26655214840685 8.622879462099224 33 28 30 0.55840096998522015 3 330 2 205 5 152 13 175 8 161 32 294 37 344 40 244 29 293 15 317 31 266
4069 1.4220407282007783 -2.1707627884149949 4.9620945067337656 86 105 107 1.8136396799908605 22 861 34 811
6425 3.393260390149329 -0.8322517404967672 8.8704259802030343 34 32 34 0.4039620117052018 3 326 2 201 5 164 13 176 8 176 32 401 37 576 40 279 29 706 15 706 31 868 30 1068
4068 -0.1793697623573941 -1.4518197765757761 8.5136400638937779 120 120 120 0.21290684639490101 22 1195 33 1501 25 1142
1702 -4.5022121061635723 -2.5264557969086572 8.0595993660945062 202 193 180 0.16003194889662539 9 741 20 543
6416 2.918464208771701 -0.46443753510643843 9.0865901303652628 35 29 33 0.48558720470645406 3 268 2 172 5 153 13 163 8 148 32 279 37 428 40 174 29 291 15 407 30 367
4059 3.6201360701741474 -4.2830664389344362 6.8224929545016089 49 52 54 0.44902028705559477 16 714 34 772
1699 3.2024214516366203 -6.67606356140511 5.3747357323250142 46 47 54 2.1383577690782642 43 822 20 453 41 423
4056 -1.0020820975793867 -3.4537958514072482 7.4153916671632585 124 124 126 0.038201230178600366 39 1088 34 761
4054 1.306500081728579 -2.5803137777355554 6.4988989638943204 119 165 171 1.0312935442467841 11 83 34 739 25 1023
1695 1.9346965865823125 -6.7775284188920049 5.4795282632925142 37 40 52 0.36517392636374335 18 122 20 444 9 215 41 409 24 211
4052 -1.3655971172031891 -3.346839847392435 7.4328778774868205 117 120 121 0.15729152055564993 19 717 34 732
1693 -10.296058396385508 8.4622300536720072 18.995304158275967 56 64 63 0.58725208758818981 9 350 38 461 20 298 18 252 21 378 27 214
4050 -0.029422635362481641 -4.4382797727680989 12.714313821256205 106 110 113 2.6660114822136221 14 1264 34 721
1692 -2.4248056203751251 -2.979858527437008 7.9351034547411121 187 184 179 1.5603475793503709 18 1192 20 294 9 1503 17 1291
4049 2.0713563708840534 -3.3110497122379674 6.6737496359397825 60 114 120 1.0326183120082384 12 847 19 915 34 720
1691 -5.1751913291282623 1.735675016751159 10.366781235490958 104 103 106 2.4170171340598707 43 127 20 283 17 132 18 68 9 75
4048 1.7319600593987221 -3.1999487777027347 6.3127338614270663 99 148 153 0.56788778677088114 11 855 22 651 34 719 25 857 33 939 28 821 4 823
4046 0.35460828151767393 -2.877512901599486 7.7360172288660181 109 115 117 1.6753950700958999 7 1326 14 706 16 611 34 710
1687 -3.7732775108056722 0.7738552622856264 9.8196332678658731 157 155 147 0.89221982346514128 38 412 20 258 41 188
4044 1.7833811248594982 -2.990296752800464 6.5190502133916555 66 102 106 1.2580728975226998 12 1230 34 705
4042 -3.0363984344129786 -6.6437656044054947 5.7526907571805932 144 144 140 0.40358983488620859 16 552 34 690
4041 1.7636279493561011 -5.6661356612867433 5.4154185141374755 66 77 77 1.1227862693801962 7 418 12 416 34 689 19 579
1683 -10.862445580413878 10.348929786229782 28.371083775232005 102 102 102 1.7737298851495682 38 200 20 163
4040 -2.93368318816756 -6.5887551596471603 5.6287465226214941 142 140 139 0.17781917971312167 16 661 34 681
1679 1.5243853179855167 2.1815844618602465 10.637722002896135 125 130 137 2.2350136947167045 18 228 20 138 9 162 17 614 24 673
4036 -2.0462893943714495 -4.9100893666320786 6.6424315230143058 212 209 204 0.12078873417789875 11 1097 16 968 34 659
1677 -4.1987756782782437 -1.8079510877660032 8.4692289053353971 203 199 190 0.49196637382349812 18 150 20 126 9 131 41 197 24 130 43 97 17 149 21 295
4034 0.92069317194665623 -4.9346850847853627 6.5461455434979694 134 142 142 0.30753796735650135 10 1025 14 666 19 1043 34 652
4033 0.50750506585889765 -5.7022804430221505 6.0435261507950973 139 143 144 0.12735831347860471 19 808 34 640
4032 0.99050283878213119 -5.5719036617683502 6.7850174023868819 136 144 145 0.56512560336526885 7 538 10 528 11 574 12 533 19 547 34 634
4031 -1.076277253828462 -2.1772213140661383 8.1554919158666141 134 132 130 0.73334450084820324 14 837 34 633
4030 -2.7182904864400319 -3.1515635000156528 7.6443422019298506 115 115 116 0.98981314839393564 14 743 16 603 34 620
6386 -1.0767276857298715 -1.9284986265894226 8.4914660931932531 65 62 59 0.048034723778871968 3 156 2 75
4029 5.8017543614642415 -3.8184900862897595 7.0672407136296878 37 33 37 0.85398700949008632 16 592 34 616 25 524 33 796 28 541
1671 -2.6704984315463864 -3.7061179191325828 7.3563463267657472 175 173 165 0.51104923540372482 18 54 20 92 9 64 24 53 17 77
4028 2.7099649662340912 -4.0476689508136561 6.9896686652488196 75 87 89 0.73901429644164596 11 548 16 536 19 640 34 612 25 644 4 661
6379 -4.1294343560498312 -3.1886045582959635 7.688056651585037 90 77 74 0.033060868471809404 3 117 2 57
4022 1.2854873774677014 -2.5621045742297954 7.1915776240106855 93 103 106 1.5046640598231498 11 1371 34 576 10 879 12 1429 12 888 19 901
4021 5.8020733857640083 -3.4479218286802449 7.3156015835496486 34 32 39 0.20654700885043922 16 606 34 574
4020 -2.0568739913569907 -6.4760851136948885 5.6040786746146853 116 122 119 0.084350851334486499 16 553 34 564
4015 1.9007297904324267 -5.4858548137062586 6.0721570251132215 79 90 90 0.99723488393883153 12 624 19 1021 34 533
4011 -0.44665522365531735 -5.1122626416080275 6.7009674925850602 185 184 184 0.40825490710461265 7 442 10 412 11 407 12 438 19 551 34 514
1650 3.1699961520544706 -4.7492804208410888 6.606665012748719 28 32 38 0.75257909470322371 35 341 43 695 38 427 39 294 18 332 9 320 20 676 41 779 24 380 17 379 12 312 10 318 11 273 7 317 19 323 33 583 14 262 16 423 22 377 34 273 25 266 28 253
6364 2.6349924882394715 -2.8617155540150128 7.7119157907565414 96 112 112 0.28355037559640089 1 1020 3 1238 2 906 13 944 5 1102 8 1030 40 1196
4007 5.7767835937552672 -3.0464564101953084 7.5396410801164402 29 29 31 0.55959063574673085 16 476 34 486 25 380 33 618 28 516
4006 1.4381249156698137 -2.2075264729375514 4.9722361971171631 115 139 140 1.3574241537365634 22 749 34 476
4005 -2.9113017036339124 -1.8725456607088315 8.660891413276147 152 152 146 0.077056970001321279 16 508 34 472
4004 -1.486652779223639 -3.8107320844274808 7.3394868362868602 130 130 132 0.97657500188235757 16 407 34 464
4003 0.50680745271532268 -4.7862921064087418 6.5642125784156118 148 154 155 0.58044177359326221 10 537 19 554 34 462
1645 3.6370161315475906 -5.1089235830962627 6.3820273427267269 20 21 25 0.77737993394910143 18 330 35 294 43 610 39 713 9 351 20 671 41 610 24 362 17 377 12 293 10 309 11 299 7 296 19 302 33 476 14 324 16 323 22 263 34 311 25 293 28 262 35 1749
4002 -1.0966905397204803 -2.2336789521787503 8.0854235383283299 136 134 131 0.84780547215312052 14 1225 34 461 25 612 4 469
1643 1.3668709920186826 -4.068107576187316 7.0827745039398113 84 92 94 1.6587022542879581 38 1157 18 1468 9 1302 35 1401 42 1367 43 1381 38 1467 39 1702 41 889 24 1087 17 927 17 1067 12 1276 14 1022 16 1020 34 1037
4000 5.3545722473635848 -3.8407497706261888 7.0648878524393375 30 29 33 0.59113460358440095 16 523 39 745 34 451 25 388 28 533
3999 -3.3387294751161267 -3.1098817328219961 7.7694354140763631 106 107 103 0.78374466734028614 16 528 34 449 25 365
3998 1.3750066399040164 -2.9586498675082407 6.3396949492001777 64 101 109 0.29592928418607972 12 595 34 443 7 704 10 598 11 707 19 607
3993 5.354003431301269 -4.2166637577797692 6.8062447686624399 35 34 38 0.13734394136367722 16 519 34 425
1634 1.5908824294962984 -3.2866646725726389 7.4002479237030521 43 67 67 0.95936357714685916 18 1304 42 482 9 1327 20 1214 41 914
3991 4.9505078948043844 -4.6387640462476494 6.6067370696483367 24 26 33 0.12735569326849588 16 518 34 419 25 494 33 761 28 474
3987 2.3841748406454553 -6.7188426359055189 5.4511863064332635 13 22 25 0.33379196392597837 16 350 34 377 25 464
3986 1.9409516754610763 -6.7612995228209831 5.4695732222254119 12 19 23 0.27522702820425121 16 331 34 376 25 462
6342 5.1384438506278753 -1.1197156819501222 8.5311212640321106 104 108 110 0.99473599451643091 36 1134 3 989
3985 1.4919913421305679 -6.7779460809784418 5.4568418124472133 16 21 26 0.25250622751711777 16 316 34 375 25 460
3984 -4.439613005196672 -6.4139643752467261 5.833721690985521 172 170 162 0.5033827678581354 16 353 39 790 34 364
3983 0.43224206523166148 -5.3061217427765079 6.2804515461019941 161 161 163 0.86000541205893077 11 416 34 355
6338 -3.9963700560026774 -5.1521881176651316 6.5254029346618339 82 77 74 1.2906809057537592 1 915 36 978 3 958
3981 0.12622179717284263 -6.469485807386806 5.6787785429961826 25 30 35 0.33459819246537048 16 223 34 259
3980 -0.32492493030870917 -6.5073824497565758 5.6891921713556401 29 34 36 0.27728185595890487 16 221 34 257
3979 -0.7768414456505407 -6.5358048603391943 5.6876308898381067 32 38 38 0.26437509699893902 16 219 34 255
3957 0.90735449232224208 -4.9613746082789669 6.2670966782113018 141 142 144 0.49319778510007639 7 42 10 39 11 44 12 39 16 64 19 49 34 33
3956 -3.263946408184065 -8.4247760040090895 19.397729915749412 0 0 0 0.16220065542858009 22 48 33 46
3953 3.500401092813584 -3.1991221584949581 7.3763810323496921 68 76 75 0.12918329182005592 19 894 22 1211
3947 3.1975255725257794 -4.3483968946855649 6.8322742506894674 45 44 47 1.0915227932056797 35 1263 39 1487 12 1286 10 1000 11 1260 7 1111 19 1272 14 799 22 907 34 1054
3946 1.4780955385798229 -6.0247370420303907 5.8880744959479348 93 102 102 1.5375444446433988 11 1078 19 1106 16 917 22 688 42 1185 39 1282 33 1134 34 915 25 901 25 904 22 988 28 1032 28 1267 4 826
3945 3.990567710837865 -5.0563409735161793 6.2370109127187483 10 14 18 1.0609351688549902 11 1002 10 633 22 729 34 930 7 654
3937 1.4011548657672968 -1.8632339953937282 4.0601398901534118 72 123 126 0.22069382808478055 10 1308 22 1254
3936 -1.3367994517982074 -3.8427637410026145 7.3298770837571299 176 175 176 0.85860840158430041 7 1084 22 1251 28 1229
1575 1.1923656826343094 -1.7320055075874854 8.3597061986238543 27 29 37 0.69556216846752206 35 1481 42 1427 18 692 35 824 42 709 43 905 38 865 39 859 9 686 20 935 41 1051 24 867 17 901 12 459 10 457 11 463 7 467 19 474 33 720 16 500
3932 -0.59971032908301969 -1.4736060830854294 8.6171928949962417 139 139 141 1.8230485834561783 11 1379 12 1296 22 1240
1574 0.782342763965301 -2.1340428716023236 8.1365430337119982 71 73 76 2.1947391515430641 35 1475 42 984 43 1459 38 1582 18 705 35 606 42 445 43 810 38 591 39 715 9 737 9 1237 20 866 20 948 41 797 41 1187 24 692 24 1013 17 679 17 944 12 524 10 1320 12 1398 11 526 7 527 7 1270 19 368 19 1340 33 563 14 228 14 1190 16 401 22 185 22 1275 34 1174 25 316 28 383
6288 -1.2706391484530404 -3.931753294571382 17.445364980715329 152 155 156 1.2985671886868944 36 700 3 579
3931 -3.9759501665772756 -5.9928108776590419 6.207577036447339 156 155 155 0.71049124508581496 12 642 22 1232 7 773 10 616 11 652 19 1370 11 963
3929 0.50395213241614634 -4.4537300414257412 6.8123825071332318 146 151 156 0.10310931897970313 10 1204 22 1221
3925 -3.0775315051268479 -5.1316536669252724 6.4769998705920528 191 191 187 0.93485277419960622 11 1132 22 1212 10 1122 16 1234 28 705
3923 1.3791983485028154 -3.0696579061269937 8.2275864576247688 123 171 176 0.62297681020546614 22 1200 25 1071
3922 0.92017312460420841 -1.6457855903098846 0.20421499604811702 0 0 0 1.9449661371613356 7 1235 19 1219
3920 0.31354723432768028 -1.8295328235910169 8.4327494863100547 117 120 123 2.112209053323753 11 941 22 1189 10 1311
3914 4.3950699801402058 -2.3334370174461059 7.9342598059282841 126 132 135 0.18109478972456783 10 1324 11 1265 22 1161 7 1322 12 1322 19 1348 34 1169
3913 -3.7941717614744612 -1.1952541078118144 8.6558787458203277 155 152 149 1.2750357211467847 10 1301 22 1157 12 608
3912 -2.4034030837387088 -1.9691088127383496 8.3218970920373092 124 125 127 0.75323280074261045 7 1024 16 617 19 1350 22 1156 10 882 11 1333 12 892 19 819 14 839 25 562 28 844
3904 -3.5150494266837184 -4.0933841544680156 7.128892539789601 149 141 138 0.36923467553353145 33 1357 22 1133 28 920 4 742
3893 1.3994776260614146 -3.6936884221789374 8.1638415081479199 104 116 119 0.7426992995139019 19 1187 22 1088
3889 1.7634821964891951 -2.5520278895458706 5.1388095096251254 46 95 103 1.654031278400836 10 860 16 818 22 1083 11 1205 19 1215 11 1201 12 1216
6242 1.6031014599490532 -2.2860730573877395 7.0651892414024031 126 184 184 0.44843431361143543 26 1006 1 1044 3 1110
3885 -0.88645331668659688 -3.7509517929030709 7.2794524791732576 201 202 198 0.38622645645039205 7 1091 22 1061
3882 0.38725531186854556 -4.7398064398259105 6.6328389452371077 160 163 162 0.17331187538545245 12 1265 22 1050 7 1343 34 1219
3879 -0.89256405834268782 -4.5039946491584457 6.8102585180925885 213 213 211 0.25913344076147027 7 1137 19 1244 22 1046 10 1213 34 1128 28 939
3876 -4.9386632673954862 -5.2747151102244754 6.6248162533641048 208 197 197 1.3759246510071559 12 1055 22 1041 7 788 19 1403
6232 1.2670438172213656 -2.4249111622125086 7.9150373851122584 119 122 121 0.92180430155957427 26 607 1 990 8 1048 13 1219
3875 -0.85268728007849159 -4.9125274720694954 6.6150594807554146 198 199 195 0.59918178539503109 7 1363 22 1040 28 889
3874 -2.1778383295178165 -4.9334583806702792 6.5079914055619952 180 179 179 1.4967016081701292 16 960 22 1037 25 1012 28 1010
3869 -1.7341724995488441 -4.5586215646454349 6.7739281431111005 205 205 201 0.88229791967206184 10 1218 39 1670 22 1024 34 820 25 981 4 1082
3868 -3.9428323039135025 -4.638566781714256 6.811662158448355 200 188 180 0.36852450233418399 7 1081 22 1018 11 955 12 1123 19 1138 25 837 28 1043 4 887
3866 -2.7286436873888702 -4.6704974233834893 6.7436764985271331 111 110 112 0.22345743778680485 10 1107 22 1011 25 967 4 1090
3864 -4.7919051540769253 -6.106380510740693 6.0162547508488373 108 103 95 0.53205385843785191 7 925 11 1063 12 750 19 1005 33 1119 22 975 1 954 36 670
3855 -4.5358091092879524 -4.4474034626742398 6.9665898480996793 237 225 216 0.44895017728433517 7 617 12 743 19 967 22 941
6210 -1.3172573380760915 -4.6459779315717737 6.77684688165089 156 155 151 0.22113306018877907 36 981 1 883 3 870 2 609 5 548 13 544 8 549
3853 -4.0645138580235916 -5.5358017239455286 6.3063411794200075 178 179 175 0.98489715409290857 11 655 22 935 12 1441 34 516 28 1000 23 1002 36 436 26 305 1 263 3 499 2 430
3852 -3.1026993898040001 -5.4693857639061889 6.2518606692418706 87 87 83 0.8829687906425937 7 1144 10 1038 11 1042 22 934 34 1241
3846 3.0380275490842497 -3.9446587768767136 6.8809778941180806 71 84 83 1.7270510039978098 7 1013 11 756 22 896 19 857 19 1261 34 784 25 1094
3845 -3.1641786105056222 -3.9695332553848917 7.1611294425679484 155 159 154 0.95121170021509127 16 767 22 895 25 641 4 746 33 1360
3844 -3.597071474349617 -4.6564249281841565 6.7988694710948518 209 205 202 0.50437285683990707 12 1121 22 893 34 1100
3840 0.80922927468495398 -4.8769244550349766 6.3558292506666776 131 137 138 1.2479929164758834 7 748 12 1125 19 1109 22 878 12 1006 25 1009
3839 -4.4457688227814538 -5.6171584529892415 6.2841769278048378 184 183 178 0.736101456934942 12 1088 19 1042 22 868 34 846
3836 -4.626898040408288 -1.9503529789971448 8.3604993490981379 124 127 125 1.5880283840645952 19 1205 33 1463 22 852 7 716 34 402
3834 1.1982613258899444 -1.7786967826885398 8.4714982057099242 94 102 103 1.0184125817308967 12 1313 22 845 10 1368 11 1272
3833 -1.5554863137953381 -1.3990908249201939 8.6737292594217088 134 139 135 0.96259019578628624 11 1374 16 703 22 842 28 616
3830 -3.2117405952058555 -3.8473185565480921 7.1890850020663022 139 139 139 0.15537970953781405 16 1084 22 831
3825 0.42187268766628466 -3.4269880570923266 7.5496635871350914 115 122 123 1.0974453340718457 39 1505 22 815 25 1103 28 964
6181 5.3735955852917687 -3.0778877057571878 7.4725881161070431 121 124 125 0.37233031203853845 26 686 1 620 2 845 5 931 13 905 8 941 32 982 40 923 29 1113 15 1082
3824 -0.94104752880259801 -3.0656485090570178 7.6524052203065036 126 129 132 0.71035299749397274 10 902 19 885 22 810 34 718 25 1025 28 789
3823 1.7777849790913829 -2.2371430888444417 4.5432126739199594 78 131 135 0.50592675765816886 10 1175 22 808 7 1243 11 1338 12 1369
3820 -2.3816239066609137 -3.1218835885492742 7.6213035035771988 111 114 117 0.88740927782641421 16 724 22 797 25 617 33 614 28 575 23 1226 1 518
3818 1.4755252833196686 -2.8236457411156541 5.857434934366518 85 139 143 1.0618102293788119 11 853 16 783 22 795 25 671
6173 1.1863432493856487 -2.7523096053445508 7.5478396704847555 90 102 100 1.2636059022435078 6 764 26 504 1 564
3816 2.1157427021190092 -3.3220821427827123 6.7000750166295191 56 111 117 2.2869118057875686 10 697 22 790 28 824
3815 3.056340992610131 -3.5995166594444026 7.2317069299745116 59 70 70 1.1090672533555379 11 1164 22 789 7 1377 19 787
3814 1.3633577703323585 -4.0922556640306196 6.9483070808915581 105 113 115 0.5632257479979651 16 772 22 785 34 789 14 1040 25 1095 4 662
3812 -3.5544338418082422 -3.9744717766670941 7.1260838066316357 159 159 161 0.65057417275649243 11 984 22 781 25 526 28 554 4 441
3805 -4.7284728320866742 -1.3036852752678245 8.7852274555824827 149 149 143 0.9261207783273071 11 895 16 699 22 760 12 678 33 1475 39 1599 43 1281 38 1661 42 1398
3804 -3.7724626437706226 -1.184715594036837 8.8542310447503958 101 97 98 0.38280185489830948 10 1331 11 940 22 757 19 1362 25 708 28 760
3803 -3.2776821840980199 -2.8049132828565568 7.8665967092800297 99 102 103 0.42188236315323879 16 608 22 751
3802 2.3914793014235403 -1.9218693236615096 4.3113817497502058 65 75 80 1.7176926021225278 39 1077 22 745
3801 4.3980280869326851 -2.6428934608900132 7.7258208878464663 77 88 86 0.32011972444937409 7 677 19 672 22 742
3798 1.3326964002723434 -5.2482472425378974 6.359657895882064 85 95 98 0.39573955950002904 12 1163 22 728 25 825 28 894
3796 0.12603751302688704 -5.2705254051959862 6.2949049830861945 108 114 114 0.21902223897353917 16 831 22 725
3793 -3.4450435800964363 -7.4618857053671084 7.1611196201947029 120 123 116 1.2623404522804984 33 702 22 711
3792 -4.4776996541225591 -6.3372512348796404 5.8657672438074169 142 146 139 0.9804161324712346 16 483 22 710 34 686 36 547 1 602
3790 4.0434882317289089 -4.2612621376485977 6.8997274571835678 77 81 86 2.0403318630705156 11 644 22 687 7 636 19 639 34 1245
3788 1.3202365649795382 -1.8032041278652398 4.2251851414079686 98 149 152 2.6692739345265122 22 669 4 803 33 1363
6144 -3.2626335001336422 -4.7953473003979958 6.8139438036589706 164 158 153 0.37378658996486458 6 352 1 251
3787 0.27845623093378696 -2.0926281078756666 8.1069751108979631 110 115 118 0.41177719880678332 10 726 22 666 34 573 4 466
3786 -3.2388992814269928 -3.1809102933566784 7.6028101734518918 100 103 104 1.3824347085388453 16 720 33 1547 22 665 28 1114 23 837
3785 1.6343619535151332 -2.6150777652641644 5.3669378744298948 62 106 111 0.20717870208489664 12 913 22 658
3784 -5.7602032302814123 -1.3420824972868119 8.9069518565168906 157 154 148 0.80813287548599955 10 645 11 697 12 604 22 657 19 1404
3783 -0.5447649719966603 -4.2395372553433672 6.8747244429492174 214 214 214 0.24755615849180437 16 854 22 643 25 649
3780 1.7550221681253173 -2.8541643135122383 7.4338332786153343 58 105 110 1.9223237869101584 16 612 22 634 34 583 28 710
6136 6.9895449257368751 -5.3218677900555198 6.0657992520640365 92 122 141 1.3614099511748479 26 24 1 63
3779 -2.8390682042536954 -2.6504413167575698 7.9500326777024455 105 107 109 0.58596551851695544 12 873 22 633 34 712 25 741 28 644
6135 3.8824865938461541 -4.2831158432627978 6.7614402502958537 83 101 110 1.3766310306620628 36 74 1 47
3778 -7.2766230800241614 -3.0688570694721253 11.266511299603316 91 94 93 2.4311532717021729 33 719 22 631
3775 -5.5409529233557713 -2.00489765203936 8.3851789157585284 127 130 129 0.72788737853198282 7 981 39 767 22 620 33 1042
3772 4.2826004522308763 -1.9466639702577981 8.1403267546653986 73 79 80 0.69827646634064655 10 825 22 613 19 680
3771 -2.9311167305454928 -1.1777995777486936 8.6956265990646369 160 156 157 0.063512911644254197 12 670 22 611
